# This PCD file was generated using the MATLAB® pcwrite function
# from Computer Vision Toolbox®.
# .PCD v.7 - Point Cloud Data file format
VERSION .7
FIELDS x y z
SIZE 8 8 8
TYPE F F F
COUNT 1 1 1
WIDTH 876
HEIGHT 1
VIEWPOINT 0 0 0 1 0 0 0
POINTS 876
DATA ascii
1.135897867080524 1.373064652573528 -0.907980999479093
1.153516939630874 1.394362452693704 -0.851558583130145
1.169997630227597 1.414284185416490 -0.794295781269561
1.185323674418811 1.432810190396869 -0.736249105369356
1.199479947249235 1.449922184704597 -0.677475840490583
1.212452478186693 1.465603280867248 -0.618033988749895
1.224228464909342 1.479838003536112 -0.557982212078459
1.234796285940020 1.492612304758493 -0.497379774329710
1.244145512115237 1.503913577841344 -0.436286482793085
1.252266916877504 1.513730669792553 -0.374762629171449
1.259152485380831 1.522053892327596 -0.312868930080462
1.264795422400408 1.528875031430704 -0.250666467128609
1.269190159038678 1.534187355461109 -0.188216626637029
1.272332358221162 1.537985621796359 -0.125581039058627
1.274218918976628 1.540266082006150 -0.062821518156257
1.274847979497379 1.541026485551579 0.000000000000000
1.274218918976628 1.540266082006150 0.062821518156257
1.272332358221162 1.537985621796359 0.125581039058627
1.269190159038678 1.534187355461109 0.188216626637029
1.264795422400408 1.528875031430704 0.250666467128609
1.259152485380831 1.522053892327596 0.312868930080462
1.252266916877504 1.513730669792553 0.374762629171449
1.244145512115237 1.503913577841344 0.436286482793085
1.234796285940020 1.492612304758493 0.497379774329710
1.224228464909342 1.479838003536112 0.557982212078459
1.212452478186693 1.465603280867248 0.618033988749895
1.199479947249235 1.449922184704597 0.677475840490583
1.185323674418811 1.432810190396869 0.736249105369356
1.169997630227597 1.414284185416490 0.794295781269561
1.153516939630874 1.394362452693704 0.851558583130145
1.135897867080524 1.373064652573528 0.907980999479093
1.117157800473976 1.350411803413367 0.963507348203431
1.097315233994456 1.326426260840429 1.018082831500743
1.076389749859458 1.301131695689425 1.071653589957993
1.054401998995457 1.274553070642309 1.124166755704261
1.031373680657944 1.246716615593126 1.175570504584946
1.007327521016876 1.217649801762274 1.225814107305953
0.982287250728689 1.187381314585725 1.274847979497379
0.956277581517009 1.155941025405962 1.322623730647304
0.929324181785164 1.123359961992576 1.369094211857377
0.901453651284566 1.089670277921595 1.414213562373095
0.872693494863967 1.054905220843791 1.457937254842823
0.843072095325501 1.019099099673266 1.500222139260919
0.812618685414275 0.982287250728689 1.541026485551579
0.781363318969189 0.944506002860619 1.580310024751381
0.749336841263417 0.905792641599318 1.618033988749895
0.716570858563851 0.866185372358429 1.654161148549124
0.683097706939530 0.825723282730849 1.688655851004030
0.648950420349846 0.784446303913995 1.721484054007887
0.614162698044010 0.742395171302527 1.752613360087727
0.578768871303967 0.699611384287439 1.782013048376736
0.542803869563558 0.656137165301165 1.809654104932039
0.506303185937396 0.612015418149139 1.835509251367962
0.469302842193438 0.567289685668916 1.859552971776503
0.431839353203854 0.522004106758652 1.881761537908451
0.393949690909255 0.476203372817337 1.902113032590307
0.355671247831851 0.429932683639782 1.920587371353886
0.317041800173547 0.383237702809875 1.937166322257262
0.278099470535392 0.336164512636144 1.951833523877495
0.238882690295174 0.288759568674074 1.964574501457377
0.199430161680292 0.241069653880088 1.975376681190276
0.159780819573326 0.193141832442415 1.984229402628956
0.119973793088015 0.145023403334417 1.991123929206160
0.080048366953536 0.096761853636216 1.996053456856543
0.040043942745231 0.048404811670676 1.999013120731463
0.000000000000000 0.000000000000000 2.000000000000000
0.000000000000000 0.000000000000000 -2.000000000000000
0.036925561898872 0.050823675800846 -1.999013120731463
0.073814682726226 0.101597194769693 -1.996053456856543
0.110630957373484 0.152270449573281 -1.991123929206160
0.147338052622452 0.202793431826973 -1.984229402628956
0.183899743001820 0.253116281447001 -1.975376681190276
0.220279946537331 0.303189335856339 -1.964574501457377
0.256442760360329 0.352963178995679 -1.951833523877495
0.292352496139562 0.402388690091112 -1.937166322257262
0.327973715301249 0.451417092130399 -1.920587371353886
0.363271264002681 0.500000000000000 -1.902113032590307
0.398210307824813 0.548089468235333 -1.881761537908451
0.432756366149635 0.595638038337161 -1.859552971776503
0.466875346188376 0.642598785607401 -1.835509251367962
0.500533576626973 0.688925365458139 -1.809654104932039
0.533697840855591 0.734572059148137 -1.782013048376736
0.566335409749405 0.779493818901715 -1.752613360087727
0.598414073968299 0.823646312365467 -1.721484054007887
0.629902175743594 0.866985966358938 -1.688655851004030
0.660768640120440 0.909470009876097 -1.654161148549124
0.690983005625053 0.951056516295154 -1.618033988749895
0.720515454326502 0.991704444755072 -1.580310024751381
0.749336841263417 1.031373680657944 -1.541026485551579
0.777418723206537 1.070025075257262 -1.500222139260919
0.804733386728753 1.107620484292993 -1.457937254842823
0.831253875554907 1.144122805635369 -1.414213562373095
0.856954017164384 1.179496015900203 -1.369094211857377
0.881808448620233 1.213705205999623 -1.322623730647304
0.905792641599318 1.246716615593126 -1.274847979497379
0.928882926598815 1.278497666404961 -1.225814107305953
0.951056516295154 1.309016994374947 -1.175570504584946
0.972291528032354 1.338244480611023 -1.124166755704261
0.992567005417565 1.366151281112949 -1.071653589957993
1.011862939002496 1.392709855237861 -1.018082831500743
1.030160286030324 1.417893992879550 -0.963507348203431
1.047440989228599 1.441678840334685 -0.907980999479093
1.063687994629588 1.464040924830404 -0.851558583130145
1.078885268400486 1.484958177689119 -0.794295781269561
1.093017812666870 1.504409956107628 -0.736249105369356
1.106071680313791 1.522377063529074 -0.677475840490583
1.118033988749895 1.538841768587627 -0.618033988749895
1.128892932620982 1.553787822607202 -0.557982212078459
1.138637795460467 1.567200475636941 -0.497379774329710
1.147258960265240 1.579066491007633 -0.436286482793085
1.154747918986484 1.589374158394708 -0.374762629171449
1.161097280926094 1.598113305374915 -0.312868930080462
1.166300780030404 1.605275307465275 -0.250666467128609
1.170353281074023 1.610853096634403 -0.188216626637029
1.173250784727686 1.614841168277804 -0.125581039058627
1.174990431505107 1.617235586650252 -0.062821518156257
1.175570504584946 1.618033988749895 0.000000000000000
1.174990431505107 1.617235586650252 0.062821518156257
1.173250784727686 1.614841168277804 0.125581039058627
1.170353281074023 1.610853096634403 0.188216626637029
1.166300780030404 1.605275307465275 0.250666467128609
1.161097280926094 1.598113305374915 0.312868930080462
1.154747918986484 1.589374158394708 0.374762629171449
1.147258960265240 1.579066491007633 0.436286482793085
1.138637795460467 1.567200475636941 0.497379774329710
1.128892932620982 1.553787822607202 0.557982212078459
1.118033988749895 1.538841768587627 0.618033988749895
1.106071680313791 1.522377063529074 0.677475840490583
1.093017812666870 1.504409956107628 0.736249105369356
1.078885268400486 1.484958177689119 0.794295781269561
1.063687994629588 1.464040924830404 0.851558583130145
1.047440989228599 1.441678840334685 0.907980999479093
1.030160286030324 1.417893992879550 0.963507348203431
1.011862939002496 1.392709855237861 1.018082831500743
0.992567005417565 1.366151281112949 1.071653589957993
0.972291528032354 1.338244480611023 1.124166755704261
0.951056516295154 1.309016994374947 1.175570504584946
0.928882926598815 1.278497666404961 1.225814107305953
0.905792641599318 1.246716615593126 1.274847979497379
0.881808448620233 1.213705205999623 1.322623730647304
0.856954017164384 1.179496015900203 1.369094211857377
0.831253875554907 1.144122805635369 1.414213562373095
0.804733386728753 1.107620484292993 1.457937254842823
0.777418723206537 1.070025075257262 1.500222139260919
0.749336841263417 1.031373680657944 1.541026485551579
0.720515454326502 0.991704444755072 1.580310024751381
0.690983005625053 0.951056516295154 1.618033988749895
0.660768640120440 0.909470009876097 1.654161148549124
0.629902175743594 0.866985966358938 1.688655851004030
0.598414073968299 0.823646312365467 1.721484054007887
0.566335409749405 0.779493818901715 1.752613360087727
0.533697840855591 0.734572059148137 1.782013048376736
0.500533576626973 0.688925365458139 1.809654104932039
0.466875346188376 0.642598785607401 1.835509251367962
0.432756366149635 0.595638038337161 1.859552971776503
0.398210307824813 0.548089468235333 1.881761537908451
0.363271264002681 0.500000000000000 1.902113032590307
0.327973715301249 0.451417092130399 1.920587371353886
0.292352496139562 0.402388690091112 1.937166322257262
0.256442760360329 0.352963178995679 1.951833523877495
0.220279946537331 0.303189335856339 1.964574501457377
0.183899743001820 0.253116281447001 1.975376681190276
0.147338052622452 0.202793431826973 1.984229402628956
0.110630957373484 0.152270449573281 1.991123929206160
0.073814682726226 0.101597194769693 1.996053456856543
0.036925561898872 0.050823675800846 1.999013120731463
0.000000000000000 0.000000000000000 2.000000000000000
0.000000000000000 0.000000000000000 -2.000000000000000
0.033661452729382 0.053041962101759 -1.999013120731463
0.067289685668916 0.106031578190758 -1.996053456856543
0.100851511812678 0.158916553913430 -1.991123929206160
0.134313809690230 0.211644698183617 -1.984229402628956
0.167643556053522 0.264163974688871 -1.975376681190276
0.200807858466840 0.316422553244011 -1.964574501457377
0.233773987767678 0.368368860941256 -1.951833523877495
0.266509410366465 0.419951633046464 -1.937166322257262
0.298981820353291 0.471119963591231 -1.920587371353886
0.331159171379941 0.521823355610935 -1.902113032590307
0.363009708285771 0.572011770979148 -1.881761537908451
0.394501998436216 0.621635679789223 -1.859552971776503
0.425604962743007 0.670646109234331 -1.835509251367962
0.456287906335481 0.718994691937711 -1.809654104932039
0.486520548852709 0.766633713685429 -1.782013048376736
0.516273054326556 0.813516160514550 -1.752613360087727
0.545516060626185 0.859595765110239 -1.721484054007887
0.574220708434927 0.904827052466019 -1.688655851004030
0.602358669730951 0.949165384762109 -1.654161148549124
0.629902175743594 0.992567005417565 -1.618033988749895
0.656824044357789 1.034989082272740 -1.580310024751381
0.683097706939530 1.076389749859458 -1.541026485551579
0.708697234555908 1.116728150717174 -1.500222139260919
0.733597363563834 1.155964475714356 -1.457937254842823
0.757773520542205 1.194060003335290 -1.414213562373095
0.781201846542906 1.230977137893543 -1.369094211857377
0.803859220636712 1.266679446634367 -1.322623730647304
0.825723282730849 1.301131695689425 -1.274847979497379
0.846772455635711 1.334299884848371 -1.225814107305953
0.866985966358938 1.366151281112949 -1.175570504584946
0.886343866605853 1.396654451000512 -1.124166755704261
0.904827052466019 1.425779291565073 -1.071653589957993
0.922417283266496 1.453497060105278 -1.018082831500743
0.939097199573177 1.479780402529987 -0.963507348203431
0.954850340322458 1.504603380353451 -0.907980999479093
0.969661159066319 1.527941496293474 -0.851558583130145
0.983515039314793 1.549771718447268 -0.794295781269561
0.996398308960672 1.570072503021162 -0.736249105369356
1.008298253772233 1.588823815591724 -0.677475840490583
1.019203129940644 1.606007150877321 -0.618033988749895
1.029102175669689 1.621605551000595 -0.557982212078459
1.037985621796359 1.635603622223842 -0.497379774329710
1.045844701431839 1.647987550140773 -0.436286482793085
1.052671658613366 1.658745113309663 -0.374762629171449
1.058459755958432 1.667865695314441 -0.312868930080462
1.063203281313762 1.675340295241809 -0.250666467128609
1.066897553392523 1.681161536564058 -0.188216626637029
1.069538926394188 1.685323674418811 -0.125581039058627
1.071124793602502 1.687822601278506 -0.062821518156257
1.071653589957993 1.688655851004030 0.000000000000000
1.071124793602502 1.687822601278506 0.062821518156257
1.069538926394188 1.685323674418811 0.125581039058627
1.066897553392523 1.681161536564058 0.188216626637029
1.063203281313762 1.675340295241809 0.250666467128609
1.058459755958432 1.667865695314441 0.312868930080462
1.052671658613366 1.658745113309663 0.374762629171449
1.045844701431839 1.647987550140773 0.436286482793085
1.037985621796359 1.635603622223842 0.497379774329710
1.029102175669689 1.621605551000595 0.557982212078459
1.019203129940644 1.606007150877321 0.618033988749895
1.008298253772233 1.588823815591724 0.677475840490583
0.996398308960672 1.570072503021162 0.736249105369356
0.983515039314793 1.549771718447268 0.794295781269561
0.969661159066319 1.527941496293474 0.851558583130145
0.954850340322458 1.504603380353451 0.907980999479093
0.939097199573177 1.479780402529987 0.963507348203431
0.922417283266496 1.453497060105278 1.018082831500743
0.904827052466019 1.425779291565073 1.071653589957993
0.886343866605853 1.396654451000512 1.124166755704261
0.866985966358938 1.366151281112949 1.175570504584946
0.846772455635711 1.334299884848371 1.225814107305953
0.825723282730849 1.301131695689425 1.274847979497379
0.803859220636712 1.266679446634367 1.322623730647304
0.781201846542906 1.230977137893543 1.369094211857377
0.757773520542205 1.194060003335290 1.414213562373095
0.733597363563834 1.155964475714356 1.457937254842823
0.708697234555908 1.116728150717174 1.500222139260919
0.683097706939530 1.076389749859458 1.541026485551579
0.656824044357789 1.034989082272740 1.580310024751381
0.629902175743594 0.992567005417565 1.618033988749895
0.602358669730951 0.949165384762109 1.654161148549124
0.574220708434927 0.904827052466019 1.688655851004030
0.545516060626185 0.859595765110239 1.721484054007887
0.516273054326556 0.813516160514550 1.752613360087727
0.486520548852709 0.766633713685429 1.782013048376736
0.456287906335481 0.718994691937711 1.809654104932039
0.425604962743007 0.670646109234331 1.835509251367962
0.394501998436216 0.621635679789223 1.859552971776503
0.363009708285771 0.572011770979148 1.881761537908451
0.331159171379941 0.521823355610935 1.902113032590307
0.298981820353291 0.471119963591231 1.920587371353886
0.266509410366465 0.419951633046464 1.937166322257262
0.233773987767678 0.368368860941256 1.951833523877495
0.200807858466840 0.316422553244011 1.964574501457377
0.167643556053522 0.264163974688871 1.975376681190276
0.134313809690230 0.211644698183617 1.984229402628956
0.100851511812678 0.158916553913430 1.991123929206160
0.067289685668916 0.106031578190758 1.996053456856543
0.033661452729382 0.053041962101759 1.999013120731463
0.000000000000000 0.000000000000000 2.000000000000000
0.000000000000000 0.000000000000000 -2.000000000000000
0.030264497184424 0.055050916010825 -1.999013120731463
0.060499126964005 0.110047503413924 -1.996053456856543
0.090674051409419 0.164935487217350 -1.991123929206160
0.120759491513304 0.219660699607795 -1.984229402628956
0.150725756578535 0.274169133407685 -1.975376681190276
0.180543273519364 0.328406995373743 -1.964574501457377
0.210182616046484 0.382320759284423 -1.951833523877495
0.239614533707220 0.435857218763834 -1.937166322257262
0.268809980752200 0.488963539790005 -1.920587371353886
0.297740144800000 0.541587312835687 -1.902113032590307
0.326376475271486 0.593676604590229 -1.881761537908451
0.354690711565788 0.645180009211485 -1.859552971776503
0.382654910950103 0.696046699057176 -1.835509251367962
0.410241476135798 0.746226474845634 -1.809654104932039
0.437423182513601 0.795669815196434 -1.782013048376736
0.464173205021003 0.844327925502015 -1.752613360087727
0.490465144615360 0.892152786082072 -1.721484054007887
0.516273054326556 0.939097199573177 -1.688655851004030
0.541571464863533 0.985114837506882 -1.654161148549124
0.566335409749405 1.030160286030324 -1.618033988749895
0.590540449960357 1.074189090724212 -1.580310024751381
0.614162698044010 1.117157800473976 -1.541026485551579
0.637178841693456 1.159024010350768 -1.500222139260919
0.659566166753684 1.199746403460008 -1.457937254842823
0.681302579637714 1.239284791716172 -1.414213562373095
0.702366629130299 1.277600155503579 -1.369094211857377
0.722737527557683 1.314654682184039 -1.322623730647304
0.742395171302527 1.350411803413367 -1.274847979497379
0.761320160643750 1.384836231229919 -1.225814107305953
0.779493818901715 1.417893992879551 -1.175570504584946
0.796898210869853 1.449552464342627 -1.124166755704261
0.813516160514550 1.479780402529987 -1.071653589957993
0.829331267925815 1.508547976116103 -1.018082831500743
0.844327925502015 1.535826794978997 -0.963507348203431
0.858491333352690 1.561589938217862 -0.907980999479093
0.871807513904260 1.585811980720745 -0.851558583130145
0.884263325694205 1.608469018256057 -0.794295781269561
0.895846476340093 1.629538691063168 -0.736249105369356
0.906545534670690 1.649000205918790 -0.677475840490583
0.916349942007136 1.666834356657378 -0.618033988749895
0.925250022583090 1.683023543125295 -0.557982212078459
0.933236993093543 1.697551788550043 -0.497379774329710
0.940302971362881 1.710404755307403 -0.436286482793085
0.946440984123637 1.721569759070943 -0.374762629171449
0.951644973898268 1.731035781329916 -0.312868930080462
0.955909804977151 1.738793480263199 -0.250666467128609
0.959231268486911 1.744835199958543 -0.188216626637029
0.961606086544069 1.749154977968035 -0.125581039058627
0.963031915489918 1.751748551192312 -0.062821518156257
0.963507348203430 1.752613360087727 0.000000000000000
0.963031915489918 1.751748551192312 0.062821518156257
0.961606086544069 1.749154977968035 0.125581039058627
0.959231268486911 1.744835199958543 0.188216626637029
0.955909804977151 1.738793480263199 0.250666467128609
0.951644973898268 1.731035781329916 0.312868930080462
0.946440984123637 1.721569759070943 0.374762629171449
0.940302971362881 1.710404755307403 0.436286482793085
0.933236993093543 1.697551788550043 0.497379774329710
0.925250022583090 1.683023543125295 0.557982212078459
0.916349942007136 1.666834356657378 0.618033988749895
0.906545534670690 1.649000205918790 0.677475840490583
0.895846476340093 1.629538691063168 0.736249105369356
0.884263325694205 1.608469018256057 0.794295781269561
0.871807513904260 1.585811980720745 0.851558583130145
0.858491333352690 1.561589938217862 0.907980999479093
0.844327925502015 1.535826794978997 0.963507348203431
0.829331267925815 1.508547976116103 1.018082831500743
0.813516160514550 1.479780402529987 1.071653589957993
0.796898210869853 1.449552464342627 1.124166755704261
0.779493818901715 1.417893992879551 1.175570504584946
0.761320160643750 1.384836231229919 1.225814107305953
0.742395171302527 1.350411803413367 1.274847979497379
0.722737527557683 1.314654682184039 1.322623730647304
0.702366629130299 1.277600155503579 1.369094211857377
0.681302579637714 1.239284791716172 1.414213562373095
0.659566166753684 1.199746403460008 1.457937254842823
0.637178841693456 1.159024010350768 1.500222139260919
0.614162698044010 1.117157800473976 1.541026485551579
0.590540449960357 1.074189090724212 1.580310024751381
0.566335409749405 1.030160286030324 1.618033988749895
0.541571464863533 0.985114837506882 1.654161148549124
0.516273054326556 0.939097199573177 1.688655851004030
0.490465144615360 0.892152786082072 1.721484054007887
0.464173205021003 0.844327925502015 1.752613360087727
0.437423182513601 0.795669815196434 1.782013048376736
0.410241476135798 0.746226474845634 1.809654104932039
0.382654910950103 0.696046699057176 1.835509251367962
0.354690711565788 0.645180009211485 1.859552971776503
0.326376475271486 0.593676604590229 1.881761537908451
0.297740144800000 0.541587312835687 1.902113032590307
0.268809980752200 0.488963539790005 1.920587371353886
0.239614533707220 0.435857218763834 1.937166322257262
0.210182616046484 0.382320759284423 1.951833523877495
0.180543273519364 0.328406995373743 1.964574501457377
0.150725756578535 0.274169133407685 1.975376681190276
0.120759491513304 0.219660699607795 1.984229402628956
0.090674051409419 0.164935487217350 1.991123929206160
0.060499126964005 0.110047503413924 1.996053456856543
0.030264497184424 0.055050916010825 1.999013120731463
0.000000000000000 0.000000000000000 2.000000000000000
0.000000000000000 0.000000000000000 -2.000000000000000
0.026748101495613 0.056842609104766 -1.999013120731463
0.053469805844388 0.113629121417038 -1.996053456856543
0.080138741950282 0.170303495505080 -1.991123929206160
0.106728590793139 0.226809800604049 -1.984229402628956
0.133213111402381 0.283092271812901 -1.975376681190276
0.159566166753684 0.339095365127619 -1.964574501457377
0.185761749563057 0.394763812256434 -1.951833523877495
0.211774007952900 0.450042675162965 -1.937166322257262
0.237577270964678 0.504877400283421 -1.920587371353886
0.263146073893066 0.559213872364384 -1.902113032590307
0.288455183416533 0.612998467868033 -1.881761537908451
0.313479622499583 0.666178107892098 -1.859552971776503
0.338194695042080 0.718700310552331 -1.835509251367962
0.362576010251310 0.770513242775789 -1.809654104932039
0.386599506712755 0.821565771453819 -1.782013048376736
0.410241476135798 0.871807513904261 -1.752613360087727
0.433478586750949 0.921188887593076 -1.721484054007887
0.456287906335481 0.969661159066319 -1.688655851004030
0.478646924844766 1.017176492044175 -1.654161148549124
0.500533576626973 1.063687994629588 -1.618033988749895
0.521926262199201 1.109149765584911 -1.580310024751381
0.542803869563558 1.153516939630874 -1.541026485551579
0.563145795042162 1.196745731723210 -1.500222139260919
0.582931963610476 1.238793480263199 -1.457937254842823
0.602142848708934 1.279618689199517 -1.414213562373095
0.620759491513304 1.319181068979832 -1.369094211857377
0.638763519644752 1.357441576311724 -1.322623730647304
0.656137165301165 1.394362452693704 -1.274847979497379
0.672863282791825 1.429907261678294 -1.225814107305953
0.688925365458139 1.464040924830404 -1.175570504584946
0.704307561963713 1.496729756345509 -1.124166755704261
0.718994691937711 1.527941496293475 -1.071653589957993
0.732972260956048 1.557645342455211 -1.018082831500743
0.746226474845634 1.585811980720745 -0.963507348203431
0.758744253297562 1.612413614018708 -0.907980999479093
0.770513242775789 1.637423989748690 -0.851558583130145
0.781521828708588 1.660818425689383 -0.794295781269561
0.791759146950725 1.682573834356961 -0.736249105369356
0.801215094505062 1.702668745789628 -0.677475840490583
0.809880339492993 1.721083328735889 -0.618033988749895
0.817746330363883 1.737799410225597 -0.557982212078459
0.824805304334414 1.752800493504478 -0.497379774329710
0.831050295049519 1.766071774314438 -0.436286482793085
0.836475139457328 1.777600155503579 -0.374762629171449
0.841074483891360 1.787374259951505 -0.312868930080462
0.844843789353944 1.795384441797169 -0.250666467128609
0.847779335995663 1.801622795958169 -0.188216626637029
0.849878226786393 1.806083165932115 -0.125581039058627
0.851138390374327 1.808761149872349 -0.062821518156257
0.851558583130145 1.809654104932039 0.000000000000000
0.851138390374327 1.808761149872349 0.062821518156257
0.849878226786393 1.806083165932115 0.125581039058627
0.847779335995663 1.801622795958169 0.188216626637029
0.844843789353944 1.795384441797169 0.250666467128609
0.841074483891360 1.787374259951505 0.312868930080462
0.836475139457328 1.777600155503579 0.374762629171449
0.831050295049519 1.766071774314438 0.436286482793085
0.824805304334414 1.752800493504478 0.497379774329710
0.817746330363883 1.737799410225597 0.557982212078459
0.809880339492993 1.721083328735889 0.618033988749895
0.801215094505062 1.702668745789628 0.677475840490583
0.791759146950725 1.682573834356961 0.736249105369356
0.781521828708588 1.660818425689383 0.794295781269561
0.770513242775789 1.637423989748690 0.851558583130145
0.758744253297562 1.612413614018708 0.907980999479093
0.746226474845634 1.585811980720745 0.963507348203431
0.732972260956048 1.557645342455211 1.018082831500743
0.718994691937711 1.527941496293475 1.071653589957993
0.704307561963713 1.496729756345509 1.124166755704261
0.688925365458139 1.464040924830404 1.175570504584946
0.672863282791825 1.429907261678294 1.225814107305953
0.656137165301165 1.394362452693704 1.274847979497379
0.638763519644752 1.357441576311724 1.322623730647304
0.620759491513304 1.319181068979832 1.369094211857377
0.602142848708934 1.279618689199517 1.414213562373095
0.582931963610476 1.238793480263199 1.457937254842823
0.563145795042162 1.196745731723210 1.500222139260919
0.542803869563558 1.153516939630874 1.541026485551579
0.521926262199201 1.109149765584911 1.580310024751381
0.500533576626973 1.063687994629588 1.618033988749895
0.478646924844766 1.017176492044175 1.654161148549124
0.456287906335481 0.969661159066319 1.688655851004030
0.433478586750949 0.921188887593076 1.721484054007887
0.410241476135798 0.871807513904261 1.752613360087727
0.386599506712755 0.821565771453819 1.782013048376736
0.362576010251310 0.770513242775789 1.809654104932039
0.338194695042080 0.718700310552331 1.835509251367962
0.313479622499583 0.666178107892098 1.859552971776503
0.288455183416533 0.612998467868033 1.881761537908451
0.263146073893066 0.559213872364384 1.902113032590307
0.237577270964678 0.504877400283421 1.920587371353886
0.211774007952900 0.450042675162965 1.937166322257262
0.185761749563057 0.394763812256434 1.951833523877495
0.159566166753684 0.339095365127619 1.964574501457377
0.133213111402381 0.283092271812901 1.975376681190276
0.106728590793139 0.226809800604049 1.984229402628956
0.080138741950282 0.170303495505080 1.991123929206160
0.053469805844388 0.113629121417038 1.996053456856543
0.026748101495613 0.056842609104766 1.999013120731463
0.000000000000000 0.000000000000000 2.000000000000000
0.000000000000000 0.000000000000000 -2.000000000000000
0.023126143270244 0.058409970389489 -1.999013120731463
0.046229463829134 0.116762297190125 -1.996053456856543
0.069287161488575 0.174999393700318 -1.991123929206160
0.092276481084768 0.233063786936861 -1.984229402628956
0.115174734934804 0.290898174353829 -1.975376681190276
0.137959325226674 0.348445480393272 -1.964574501457377
0.160607766320576 0.405648912811900 -1.951833523877495
0.183097706939531 0.462452018728169 -1.937166322257262
0.205406952227390 0.518798740334463 -1.920587371353886
0.227513485652482 0.574633470219376 -1.902113032590307
0.249395490735272 0.629901106245524 -1.881761537908451
0.271031372578589 0.684547105928689 -1.859552971776503
0.292399779179184 0.738517540264676 -1.835509251367962
0.313479622499583 0.791759146950725 -1.809654104932039
0.334250099279428 0.844219382948974 -1.782013048376736
0.354690711565788 0.895846476340093 -1.752613360087727
0.374781286942161 0.946589477415921 -1.721484054007887
0.394501998436216 0.996398308960672 -1.688655851004030
0.413833384086617 1.045223815671104 -1.654161148549124
0.432756366149635 1.093017812666870 -1.618033988749895
0.451252269926572 1.139733133043173 -1.580310024751381
0.469302842193438 1.185323674418811 -1.541026485551579
0.486890269214679 1.229744444433659 -1.500222139260919
0.503997194323179 1.272951605150697 -1.457937254842823
0.520606735049201 1.314902516318762 -1.414213562373095
0.536702499781342 1.355555777453324 -1.369094211857377
0.552268603943077 1.394871268693772 -1.322623730647304
0.567289685668916 1.432810190396869 -1.274847979497379
0.581750920964715 1.469335101427314 -1.225814107305953
0.595638038337161 1.504409956107628 -1.175570504584946
0.608937332878019 1.538000139790878 -1.124166755704261
0.621635679789223 1.570072503021162 -1.071653589957993
0.633720547335460 1.600595394248114 -1.018082831500743
0.645180009211485 1.629538691063168 -0.963507348203431
0.656002756311945 1.656873829926732 -0.907980999479093
0.666178107892098 1.682573834356960 -0.851558583130145
0.675696022108420 1.706613341552279 -0.794295781269561
0.684547105928689 1.728968627421412 -0.736249105369356
0.692722624401780 1.749617629996191 -0.677475840490583
0.700214509278003 1.768539971204061 -0.618033988749895
0.707015366971491 1.785716976978770 -0.557982212078459
0.713118485856778 1.801131695689425 -0.497379774329710
0.718517842892362 1.814768914869699 -0.436286482793085
0.723208109564721 1.826615176230704 -0.374762629171449
0.727184657146914 1.836658788942691 -0.312868930080462
0.730443561266570 1.844889841172495 -0.250666467128609
0.732981605778776 1.851300209865311 -0.188216626637029
0.734796285940020 1.855883568761173 -0.125581039058627
0.735885810880072 1.858635394638207 -0.062821518156257
0.736249105369356 1.859552971776503 0.000000000000000
0.735885810880072 1.858635394638207 0.062821518156257
0.734796285940020 1.855883568761173 0.125581039058627
0.732981605778776 1.851300209865311 0.188216626637029
0.730443561266570 1.844889841172495 0.250666467128609
0.727184657146914 1.836658788942691 0.312868930080462
0.723208109564721 1.826615176230704 0.374762629171449
0.718517842892362 1.814768914869699 0.436286482793085
0.713118485856778 1.801131695689425 0.497379774329710
0.707015366971491 1.785716976978770 0.557982212078459
0.700214509278003 1.768539971204061 0.618033988749895
0.692722624401780 1.749617629996191 0.677475840490583
0.684547105928689 1.728968627421412 0.736249105369356
0.675696022108420 1.706613341552279 0.794295781269561
0.666178107892098 1.682573834356960 0.851558583130145
0.656002756311945 1.656873829926732 0.907980999479093
0.645180009211485 1.629538691063168 0.963507348203431
0.633720547335460 1.600595394248114 1.018082831500743
0.621635679789223 1.570072503021162 1.071653589957993
0.608937332878019 1.538000139790878 1.124166755704261
0.595638038337161 1.504409956107628 1.175570504584946
0.581750920964715 1.469335101427314 1.225814107305953
0.567289685668916 1.432810190396869 1.274847979497379
0.552268603943077 1.394871268693772 1.322623730647304
0.536702499781342 1.355555777453324 1.369094211857377
0.520606735049201 1.314902516318762 1.414213562373095
0.503997194323179 1.272951605150697 1.457937254842823
0.486890269214679 1.229744444433659 1.500222139260919
0.469302842193438 1.185323674418811 1.541026485551579
0.451252269926572 1.139733133043173 1.580310024751381
0.432756366149635 1.093017812666870 1.618033988749895
0.413833384086617 1.045223815671104 1.654161148549124
0.394501998436216 0.996398308960672 1.688655851004030
0.374781286942161 0.946589477415921 1.721484054007887
0.354690711565788 0.895846476340093 1.752613360087727
0.334250099279428 0.844219382948974 1.782013048376736
0.313479622499583 0.791759146950725 1.809654104932039
0.292399779179184 0.738517540264676 1.835509251367962
0.271031372578589 0.684547105928689 1.859552971776503
0.249395490735272 0.629901106245524 1.881761537908451
0.227513485652482 0.574633470219376 1.902113032590307
0.205406952227390 0.518798740334463 1.920587371353886
0.183097706939531 0.462452018728169 1.937166322257262
0.160607766320576 0.405648912811900 1.951833523877495
0.137959325226674 0.348445480393272 1.964574501457377
0.115174734934804 0.290898174353829 1.975376681190276
0.092276481084768 0.233063786936861 1.984229402628956
0.069287161488575 0.174999393700318 1.991123929206160
0.046229463829134 0.116762297190125 1.996053456856543
0.023126143270244 0.058409970389489 1.999013120731463
0.000000000000000 0.000000000000000 2.000000000000000
0.000000000000000 0.000000000000000 -2.000000000000000
0.019412916722718 0.059746814206062 -1.999013120731463
0.038806675240380 0.119434665519823 -1.996053456856543
0.058162136254766 0.179004649238238 -1.991123929206160
0.077460198262669 0.238397976979348 -1.984229402628956
0.096681816406770 0.297556034699316 -1.975376681190276
0.115808021270614 0.356420440537411 -1.964574501457377
0.134819937599136 0.414933102431857 -1.951833523877495
0.153698802926257 0.473036275449684 -1.937166322257262
0.172425986091170 0.530672618774003 -1.920587371353886
0.190983005625053 0.587785252292473 -1.902113032590307
0.209351547990041 0.644317812731105 -1.881761537908451
0.227513485652482 0.700214509278003 -1.859552971776503
0.245450894972620 0.755420178642166 -1.835509251367962
0.263146073893066 0.809880339492993 -1.809654104932039
0.280581559408590 0.863541246226779 -1.782013048376736
0.297740144800000 0.916349942007136 -1.752613360087727
0.314604896615095 0.968254311027002 -1.721484054007887
0.331159171379941 1.019203129940644 -1.688655851004030
0.347386632023967 1.069146118414920 -1.654161148549124
0.363271264002681 1.118033988749895 -1.618033988749895
0.378797391102095 1.165818494519853 -1.580310024751381
0.393949690909255 1.212452478186693 -1.541026485551579
0.408713209933610 1.257889917638724 -1.500222139260919
0.423073378364304 1.302085971608936 -1.457937254842823
0.437016024448821 1.344997023927915 -1.414213562373095
0.450527388478791 1.386580726567735 -1.369094211857377
0.463594136369163 1.426796041434352 -1.322623730647304
0.476203372817337 1.465603280867248 -1.274847979497379
0.488342654029271 1.502964146806356 -1.225814107305953
0.500000000000000 1.538841768587627 -1.175570504584946
0.511163906336461 1.573200739329919 -1.124166755704261
0.521823355610935 1.606007150877321 -1.071653589957993
0.531967828233917 1.637228627262399 -1.018082831500743
0.541587312835687 1.666834356657377 -0.963507348203431
0.550672316146317 1.694795121781685 -0.907980999479093
0.559213872364384 1.721083328735889 -0.851558583130145
0.567203552005138 1.745673034233539 -0.794295781269561
0.574633470219376 1.768539971204061 -0.736249105369356
0.581496294574848 1.789661572741422 -0.677475840490583
0.587785252292473 1.809016994374947 -0.618033988749895
0.593494136930259 1.826587134640293 -0.557982212078459
0.598617314508310 1.842354653930286 -0.497379774329710
0.603149729068886 1.856303991607024 -0.436286482793085
0.607086907666020 1.868421381358341 -0.374762629171449
0.610424964779778 1.878694864783506 -0.312868930080462
0.613160606150797 1.887114303194708 -0.250666467128609
0.615291132031323 1.893671387622728 -0.188216626637029
0.616814439849533 1.898359647016882 -0.125581039058627
0.617729026284521 1.901174454631169 -0.062821518156257
0.618033988749895 1.902113032590307 0.000000000000000
0.617729026284521 1.901174454631169 0.062821518156257
0.616814439849533 1.898359647016882 0.125581039058627
0.615291132031323 1.893671387622728 0.188216626637029
0.613160606150797 1.887114303194708 0.250666467128609
0.610424964779778 1.878694864783506 0.312868930080462
0.607086907666020 1.868421381358341 0.374762629171449
0.603149729068886 1.856303991607024 0.436286482793085
0.598617314508310 1.842354653930286 0.497379774329710
0.593494136930259 1.826587134640293 0.557982212078459
0.587785252292473 1.809016994374947 0.618033988749895
0.581496294574848 1.789661572741422 0.677475840490583
0.574633470219376 1.768539971204061 0.736249105369356
0.567203552005138 1.745673034233539 0.794295781269561
0.559213872364384 1.721083328735889 0.851558583130145
0.550672316146317 1.694795121781685 0.907980999479093
0.541587312835687 1.666834356657377 0.963507348203431
0.531967828233917 1.637228627262399 1.018082831500743
0.521823355610935 1.606007150877321 1.071653589957993
0.511163906336461 1.573200739329919 1.124166755704261
0.500000000000000 1.538841768587627 1.175570504584946
0.488342654029271 1.502964146806356 1.225814107305953
0.476203372817337 1.465603280867248 1.274847979497379
0.463594136369163 1.426796041434352 1.322623730647304
0.450527388478791 1.386580726567735 1.369094211857377
0.437016024448821 1.344997023927915 1.414213562373095
0.423073378364304 1.302085971608936 1.457937254842823
0.408713209933610 1.257889917638724 1.500222139260919
0.393949690909255 1.212452478186693 1.541026485551579
0.378797391102095 1.165818494519853 1.580310024751381
0.363271264002681 1.118033988749895 1.618033988749895
0.347386632023967 1.069146118414920 1.654161148549124
0.331159171379941 1.019203129940644 1.688655851004030
0.314604896615095 0.968254311027002 1.721484054007887
0.297740144800000 0.916349942007136 1.752613360087727
0.280581559408590 0.863541246226779 1.782013048376736
0.263146073893066 0.809880339492993 1.809654104932039
0.245450894972620 0.755420178642166 1.835509251367962
0.227513485652482 0.700214509278003 1.859552971776503
0.209351547990041 0.644317812731105 1.881761537908451
0.190983005625053 0.587785252292473 1.902113032590307
0.172425986091170 0.530672618774003 1.920587371353886
0.153698802926257 0.473036275449684 1.937166322257262
0.134819937599136 0.414933102431857 1.951833523877495
0.115808021270614 0.356420440537411 1.964574501457377
0.096681816406770 0.297556034699316 1.975376681190276
0.077460198262669 0.238397976979348 1.984229402628956
0.058162136254766 0.179004649238238 1.991123929206160
0.038806675240380 0.119434665519823 1.996053456856543
0.019412916722718 0.059746814206062 1.999013120731463
0.000000000000000 0.000000000000000 2.000000000000000
0.000000000000000 0.000000000000000 -2.000000000000000
0.015623076261804 0.060847864642687 -1.999013120731463
0.031230734433535 0.121635679789223 -1.996053456856543
0.046807571640912 0.182303455205061 -1.991123929206160
0.062338215426226 0.242791319120374 -1.984229402628956
0.077807338919099 0.303039577316266 -1.975376681190276
0.093199675962252 0.362988772035759 -1.964574501457377
0.108500036177364 0.422579740661419 -1.951833523877495
0.123693319956137 0.481753674101716 -1.937166322257262
0.138764533361788 0.540452174828500 -1.920587371353886
0.153698802926257 0.598617314508310 -1.902113032590307
0.168481390328518 0.656191691170645 -1.881761537908451
0.183097706939531 0.713118485856778 -1.859552971776503
0.197533328219447 0.769341518693207 -1.835509251367962
0.211774007952900 0.824805304334414 -1.809654104932039
0.225805692308288 0.879455106720195 -1.782013048376736
0.239614533707220 0.933236993093543 -1.752613360087727
0.253186904490396 0.986097887225777 -1.721484054007887
0.266509410366465 1.037985621796359 -1.688655851004030
0.279568903630574 1.088848989875751 -1.654161148549124
0.292352496139562 1.138637795460467 -1.618033988749895
0.304847572031005 1.187302903010471 -1.580310024751381
0.317041800173547 1.234796285940020 -1.541026485551579
0.328923146336237 1.281071074014108 -1.500222139260919
0.340479885064867 1.326081599603730 -1.457937254842823
0.351700611253573 1.369783442754315 -1.414213562373095
0.362574251400300 1.412133475022860 -1.369094211857377
0.373090074535015 1.453089902040498 -1.322623730647304
0.383237702809875 1.492612304758493 -1.274847979497379
0.393007121740910 1.530661679336958 -1.225814107305953
0.402388690091112 1.567200475636941 -1.175570504584946
0.411373149385168 1.602192634277877 -1.124166755704261
0.419951633046464 1.635603622223842 -1.071653589957993
0.428115675147319 1.667400466863491 -1.018082831500743
0.435857218763834 1.697551788550043 -0.963507348203431
0.443168623927110 1.726027831569207 -0.907980999479093
0.450042675162965 1.752800493504478 -0.851558583130145
0.456472588612746 1.777843352970828 -0.794295781269561
0.462452018728169 1.801131695689425 -0.736249105369356
0.467975064533617 1.822642538877642 -0.677475840490583
0.473036275449684 1.842354653930286 -0.618033988749895
0.477630656672243 1.860248587369675 -0.557982212078459
0.481753674101716 1.876306680043863 -0.497379774329710
0.485401258817675 1.890513084554099 -0.436286482793085
0.488569811094386 1.902853780894291 -0.374762629171449
0.491256203953295 1.913316590287061 -0.312868930080462
0.493457786248983 1.921891187202729 -0.250666467128609
0.495172385285523 1.928569109549363 -0.188216626637029
0.496398308960672 1.933343767023842 -0.125581039058627
0.497134347435772 1.936210447615690 -0.062821518156257
0.497379774329710 1.937166322257262 0.000000000000000
0.497134347435772 1.936210447615690 0.062821518156257
0.496398308960672 1.933343767023842 0.125581039058627
0.495172385285523 1.928569109549363 0.188216626637029
0.493457786248983 1.921891187202729 0.250666467128609
0.491256203953295 1.913316590287061 0.312868930080462
0.488569811094386 1.902853780894291 0.374762629171449
0.485401258817675 1.890513084554099 0.436286482793085
0.481753674101716 1.876306680043863 0.497379774329710
0.477630656672243 1.860248587369675 0.557982212078459
0.473036275449684 1.842354653930286 0.618033988749895
0.467975064533617 1.822642538877642 0.677475840490583
0.462452018728169 1.801131695689425 0.736249105369356
0.456472588612746 1.777843352970828 0.794295781269561
0.450042675162965 1.752800493504478 0.851558583130145
0.443168623927110 1.726027831569207 0.907980999479093
0.435857218763834 1.697551788550043 0.963507348203431
0.428115675147319 1.667400466863491 1.018082831500743
0.419951633046464 1.635603622223842 1.071653589957993
0.411373149385168 1.602192634277877 1.124166755704261
0.402388690091112 1.567200475636941 1.175570504584946
0.393007121740910 1.530661679336958 1.225814107305953
0.383237702809875 1.492612304758493 1.274847979497379
0.373090074535015 1.453089902040498 1.322623730647304
0.362574251400300 1.412133475022860 1.369094211857377
0.351700611253573 1.369783442754315 1.414213562373095
0.340479885064867 1.326081599603730 1.457937254842823
0.328923146336237 1.281071074014108 1.500222139260919
0.317041800173547 1.234796285940020 1.541026485551579
0.304847572031005 1.187302903010471 1.580310024751381
0.292352496139562 1.138637795460467 1.618033988749895
0.279568903630574 1.088848989875751 1.654161148549124
0.266509410366465 1.037985621796359 1.688655851004030
0.253186904490396 0.986097887225777 1.721484054007887
0.239614533707220 0.933236993093543 1.752613360087727
0.225805692308288 0.879455106720195 1.782013048376736
0.211774007952900 0.824805304334414 1.809654104932039
0.197533328219447 0.769341518693207 1.835509251367962
0.183097706939531 0.713118485856778 1.859552971776503
0.168481390328518 0.656191691170645 1.881761537908451
0.153698802926257 0.598617314508310 1.902113032590307
0.138764533361788 0.540452174828500 1.920587371353886
0.123693319956137 0.481753674101716 1.937166322257262
0.108500036177364 0.422579740661419 1.951833523877495
0.093199675962252 0.362988772035759 1.964574501457377
0.077807338919099 0.303039577316266 1.975376681190276
0.062338215426226 0.242791319120374 1.984229402628956
0.046807571640912 0.182303455205061 1.991123929206160
0.031230734433535 0.121635679789223 1.996053456856543
0.015623076261804 0.060847864642687 1.999013120731463
0.000000000000000 0.000000000000000 2.000000000000000
0.000000000000000 0.000000000000000 -2.000000000000000
0.011771578656390 0.061708776356312 -1.999013120731463
0.023531540185847 0.123356653600551 -1.996053456856543
0.035268278926137 0.184882792720715 -1.991123929206160
0.046970212133118 0.246226474845634 -1.984229402628956
0.058625791411506 0.307327161167163 -1.975376681190276
0.070223514111749 0.368124552684678 -1.964574501457377
0.081751934681751 0.428558649712909 -1.951833523877495
0.093199675962252 0.488569811094386 -1.937166322257262
0.104555440414712 0.548098813058062 -1.920587371353886
0.115808021270614 0.607086907666020 -1.902113032590307
0.126946313591194 0.665475880790602 -1.881761537908451
0.137959325226674 0.723208109564721 -1.859552971776503
0.148836187664186 0.780226619248673 -1.835509251367962
0.159566166753684 0.836475139457328 -1.809654104932039
0.170138673301253 0.891898159692206 -1.782013048376736
0.180543273519364 0.946440984123637 -1.752613360087727
0.190769699323766 1.000049785568943 -1.721484054007887
0.200807858466840 1.052671658613366 -1.688655851004030
0.210647844497434 1.104254671821328 -1.654161148549124
0.220279946537331 1.154747918986484 -1.618033988749895
0.229694658864716 1.204101569370006 -1.580310024751381
0.238882690295174 1.252266916877504 -1.541026485551579
0.247834973350967 1.299196428126062 -1.500222139260919
0.256542673209542 1.344843789353944 -1.457937254842823
0.264997196422431 1.389163952126693 -1.414213562373095
0.273190199395951 1.432113177794488 -1.369094211857377
0.281113596625319 1.473649080656920 -1.322623730647304
0.288759568674074 1.513730669792553 -1.274847979497379
0.296120569890913 1.552318389512020 -1.225814107305953
0.303189335856339 1.589374158394708 -1.175570504584946
0.309958890551767 1.624861406870528 -1.124166755704261
0.316422553244011 1.658745113309663 -1.071653589957993
0.322573945078361 1.690991838584685 -1.018082831500743
0.328406995373742 1.721569759070943 -0.963507348203431
0.333915947613747 1.750448698052633 -0.907980999479093
0.339095365127619 1.777600155503578 -0.851558583130145
0.343940136455588 1.802997336213309 -0.794295781269561
0.348445480393272 1.826615176230704 -0.736249105369356
0.352606950710141 1.848430367599081 -0.677475840490583
0.356420440537411 1.868421381358341 -0.618033988749895
0.359882186421033 1.886568488791448 -0.557982212078459
0.362988772035759 1.902853780894291 -0.497379774329710
0.365737131556653 1.917261186049713 -0.436286482793085
0.368124552684678 1.929776485888251 -0.374762629171449
0.370148679323420 1.940387329319957 -0.312868930080462
0.371807513904261 1.949083244723425 -0.250666467128609
0.373099419357744 1.955855650280023 -0.188216626637029
0.374023120729159 1.960697862443109 -0.125581039058627
0.374577706436774 1.963605102533885 -0.062821518156257
0.374762629171449 1.964574501457377 0.000000000000000
0.374577706436774 1.963605102533885 0.062821518156257
0.374023120729159 1.960697862443109 0.125581039058627
0.373099419357744 1.955855650280023 0.188216626637029
0.371807513904261 1.949083244723425 0.250666467128609
0.370148679323420 1.940387329319957 0.312868930080462
0.368124552684678 1.929776485888251 0.374762629171449
0.365737131556653 1.917261186049713 0.436286482793085
0.362988772035759 1.902853780894291 0.497379774329710
0.359882186421033 1.886568488791448 0.557982212078459
0.356420440537411 1.868421381358341 0.618033988749895
0.352606950710141 1.848430367599081 0.677475840490583
0.348445480393272 1.826615176230704 0.736249105369356
0.343940136455588 1.802997336213309 0.794295781269561
0.339095365127619 1.777600155503578 0.851558583130145
0.333915947613747 1.750448698052633 0.907980999479093
0.328406995373742 1.721569759070943 0.963507348203431
0.322573945078361 1.690991838584685 1.018082831500743
0.316422553244011 1.658745113309663 1.071653589957993
0.309958890551767 1.624861406870528 1.124166755704261
0.303189335856339 1.589374158394708 1.175570504584946
0.296120569890913 1.552318389512020 1.225814107305953
0.288759568674074 1.513730669792553 1.274847979497379
0.281113596625319 1.473649080656920 1.322623730647304
0.273190199395951 1.432113177794488 1.369094211857377
0.264997196422431 1.389163952126693 1.414213562373095
0.256542673209542 1.344843789353944 1.457937254842823
0.247834973350967 1.299196428126062 1.500222139260919
0.238882690295174 1.252266916877504 1.541026485551579
0.229694658864716 1.204101569370006 1.580310024751381
0.220279946537331 1.154747918986484 1.618033988749895
0.210647844497434 1.104254671821328 1.654161148549124
0.200807858466840 1.052671658613366 1.688655851004030
0.190769699323766 1.000049785568943 1.721484054007887
0.180543273519364 0.946440984123637 1.752613360087727
0.170138673301253 0.891898159692206 1.782013048376736
0.159566166753684 0.836475139457328 1.809654104932039
0.148836187664186 0.780226619248673 1.835509251367962
0.137959325226674 0.723208109564721 1.859552971776503
0.126946313591194 0.665475880790602 1.881761537908451
0.115808021270614 0.607086907666020 1.902113032590307
0.104555440414712 0.548098813058062 1.920587371353886
0.093199675962252 0.488569811094386 1.937166322257262
0.081751934681751 0.428558649712909 1.951833523877495
0.070223514111749 0.368124552684678 1.964574501457377
0.058625791411506 0.307327161167163 1.975376681190276
0.046970212133118 0.246226474845634 1.984229402628956
0.035268278926137 0.184882792720715 1.991123929206160
0.023531540185847 0.123356653600551 1.996053456856543
0.011771578656390 0.061708776356312 1.999013120731463
0.000000000000000 0.000000000000000 2.000000000000000
0.000000000000000 0.000000000000000 -2.000000000000000
0.007873624007942 0.062326151721717 -1.999013120731463
